# .PCD v0.7 - Point Cloud Data file format
VERSION 0.7
FIELDS x y z rgba
SIZE 4 4 4 4
TYPE F F F U
COUNT 1 1 1 1
WIDTH 1102
HEIGHT 1
VIEWPOINT 0 0 0 1 0 0 0
POINTS 1102
DATA ascii
0.025794286 0.080171436 0.73200005 6119746
0.027188573 0.080171436 0.73200005 6118207
0.02858286 0.080171436 0.73200005 5657660
0.029936191 0.080061905 0.73100001 5198138
0.03132857 0.080061905 0.73100001 5001016
0.03272095 0.080061905 0.73100001 4804129
0.034113333 0.080061905 0.73100001 4147211
0.035505716 0.080061905 0.73100001 3426585
0.036898095 0.080061905 0.73100001 3557928
0.038290478 0.080061905 0.73100001 3683866
0.039682858 0.080061905 0.73100001 3355404
0.041075241 0.080061905 0.73100001 3028275
0.042467616 0.080061905 0.73100001 5661019
0.04386 0.080061905 0.73100001 8221302
0.045252379 0.080061905 0.73100001 9543569
0.046644762 0.080061905 0.73100001 10917260
0.048037142 0.080061905 0.73100001 10589319
0.049429525 0.080061905 0.73100001 10261386
0.050821904 0.080061905 0.73100001 10391949
0.05228572 0.080171436 0.73200005 10522490
0.053680003 0.080171436 0.73200005 9137255
0.055224765 0.080390476 0.73400003 7757171
0.056622859 0.080390476 0.73400003 9207936
0.058179051 0.08060953 0.73600006 10659732
0.05966191 0.080719054 0.73700005 10724009
0.060982861 0.08060953 0.73600006 10788516
0.062384766 0.08060953 0.73600006 10787999
0.063786671 0.08060953 0.73600006 10853009
0.065188579 0.08060953 0.73600006 10852996
-0.031164765 0.11088858 0.76100004 11639144
-0.02971524 0.11088858 0.76100004 11310693
-0.028265715 0.11088858 0.76100004 11572321
-0.026816191 0.11088858 0.76100004 11836517
-0.0252 0.11016001 0.75600004 11773289
-0.023760002 0.11016001 0.75600004 11706986
-0.02232 0.11016001 0.75600004 11509866
-0.020880001 0.11016001 0.75600004 11376484
-0.019414287 0.11001429 0.75500005 11177823
-0.017976193 0.11001429 0.75500005 10982236
-0.016559999 0.11016001 0.75600004 11179866
-0.015120002 0.11016001 0.75600004 11442528
-0.01368 0.11016001 0.75600004 11639911
-0.012240001 0.11016001 0.75600004 11838314
-0.010828571 0.11045143 0.75800002 11971181
-0.0093847616 0.11045143 0.75800002 12103014
-0.0079409527 0.11045143 0.75800002 11841630
-0.0064971428 0.11045143 0.75800002 11579488
-0.0050666668 0.11074286 0.76000005 11645283
-0.0036000002 0.11016001 0.75600004 11773024
-0.10900762 0.084462859 0.75800002 11968152
-0.10756381 0.084462859 0.75800002 12167543
-0.10640001 0.084685721 0.76000005 8812118
-0.10495239 0.084685721 0.76000005 5473125
-0.10350477 0.084685721 0.76000005 5869685
-0.10178857 0.084462859 0.75800002 6245183
-0.10008001 0.084240004 0.75600004 5655305
-0.098509528 0.084128574 0.75500005 5067044
-0.096685715 0.083794288 0.75200003 5068607
-0.095000006 0.083571434 0.75000006 5134146
-0.093571432 0.083571434 0.75000006 5199685
-0.091897145 0.08334858 0.74800003 5267020
-0.090472385 0.08334858 0.74800003 5530963
-0.089047618 0.08334858 0.74800003 5791821
-0.087622859 0.08334858 0.74800003 6314823
-0.086198099 0.08334858 0.74800003 6904395
-0.084773332 0.08334858 0.74800003 6576463
-0.08334858 0.08334858 0.74800003 6249287
-0.081923813 0.08334858 0.74800003 5725503
-0.080499046 0.08334858 0.74800003 5198657
-0.079074286 0.08334858 0.74800003 5067588
-0.077649526 0.08334858 0.74800003 5002307
-0.076224767 0.08334858 0.74800003 4937027
-0.0748 0.08334858 0.74800003 4935998
-0.07337524 0.08334858 0.74800003 4869690
-0.07195048 0.08334858 0.74800003 4804411
-0.070431434 0.083237141 0.74700004 5001533
-0.069008574 0.083237141 0.74700004 5198156
-0.067404769 0.083014295 0.74500006 5329499
-0.065985717 0.083014295 0.74500006 5527637
-0.064566672 0.083014295 0.74500006 5529168
-0.062978096 0.082791425 0.74300003 5594196
-0.061562862 0.082791425 0.74300003 5659480
-0.060147621 0.082791425 0.74300003 5725780
-0.058732383 0.082791425 0.74300003 5726545
-0.057317145 0.082791425 0.74300003 5725515
-0.055901907 0.082791425 0.74300003 5656901
-0.05448667 0.082791425 0.74300003 5594699
-0.053071432 0.082791425 0.74300003 5530706
-0.05165619 0.082791425 0.74300003 5528906
-0.050240953 0.082791425 0.74300003 5658435
-0.048760001 0.082680002 0.74200004 5790793
-0.04734667 0.082680002 0.74200004 6119759
-0.045933336 0.082680002 0.74200004 6445904
-0.044520002 0.082680002 0.74200004 5723730
-0.043106668 0.082680002 0.74200004 5003592
-0.041580953 0.08245714 0.74000001 5266494
-0.04017143 0.08245714 0.74000001 5593666
-0.038761906 0.08245714 0.74000001 5527879
-0.037301905 0.082345717 0.73900002 5528389
-0.03589429 0.082345717 0.73900002 5528131
-0.03448667 0.082345717 0.73900002 5593160
-0.03307905 0.082345717 0.73900002 5593933
-0.031671431 0.082345717 0.73900002 5659213
-0.030263809 0.082345717 0.73900002 5528142
-0.028778099 0.082122862 0.73700005 5462086
-0.027374288 0.082122862 0.73700005 5658174
-0.025970478 0.082122862 0.73700005 5854795
-0.024566669 0.082122862 0.73700005 6444887
-0.023162859 0.082122862 0.73700005 7101009
-0.02175905 0.082122862 0.73700005 6315339
-0.02035524 0.082122862 0.73700005 5594691
-0.018951431 0.082122862 0.73700005 5791548
-0.01754762 0.082122862 0.73700005 5987388
-0.01614381 0.082122862 0.73700005 5856827
-0.014740001 0.082122862 0.73700005 5725751
-0.013336192 0.082122862 0.73700005 5594676
-0.011964763 0.082345717 0.73900002 5528892
-0.010528572 0.082122862 0.73700005 5528644
-0.0091247624 0.082122862 0.73700005 5527873
-0.0077209529 0.082122862 0.73700005 5592894
-0.0063171433 0.082122862 0.73700005 5657919
-0.0049066669 0.082011431 0.73600006 5985344
-0.0035047622 0.082011431 0.73600006 6313536
-0.0021028572 0.082011431 0.73600006 5921601
-0.00070095243 0.082011431 0.73600006 5593921
0.00070095243 0.082011431 0.73600006 5725248
0.0021028572 0.082011431 0.73600006 5856579
0.003509524 0.082122862 0.73700005 6774341
0.0049066669 0.082011431 0.73600006 7691323
0.0063085719 0.082011431 0.73600006 6970160
0.0077104769 0.082011431 0.73600006 6314543
0.0090876194 0.081788577 0.73400003 5791278
0.010485714 0.081788577 0.73400003 5267253
0.01188381 0.081788577 0.73400003 5791804
0.013245715 0.081565715 0.73200005 6381124
0.014640001 0.081565715 0.73200005 6977612
0.016034286 0.081565715 0.73200005 7560261
0.017428573 0.081565715 0.73200005 6446910
0.018822858 0.081565715 0.73200005 5397577
0.020217143 0.081565715 0.73200005 6055765
0.02161143 0.081565715 0.73200005 6776655
0.023005717 0.081565715 0.73200005 6645578
0.024400003 0.081565715 0.73200005 6580304
0.025794286 0.081565715 0.73200005 6842966
0.027188573 0.081565715 0.73200005 7168072
0.02858286 0.081565715 0.73200005 6181179
0.029977145 0.081565715 0.73200005 5264962
0.03137143 0.081565715 0.73200005 5004362
0.03272095 0.081454284 0.73100001 4739632
0.034160003 0.081565715 0.73200005 4147222
0.035505716 0.081454284 0.73100001 3622688
0.036948573 0.081565715 0.73200005 3755562
0.038290478 0.081454284 0.73100001 3883034
0.039682858 0.081454284 0.73100001 3354891
0.041075241 0.081454284 0.73100001 2896439
0.042467616 0.081454284 0.73100001 5726819
0.04386 0.081454284 0.73100001 8617085
0.045252379 0.081454284 0.73100001 9872024
0.046644762 0.081454284 0.73100001 11115408
0.048037142 0.081454284 0.73100001 10721929
0.049429525 0.081454284 0.73100001 10392462
0.050891433 0.081565715 0.73200005 10523795
0.05228572 0.081565715 0.73200005 10719105
0.053826667 0.081788577 0.73400003 9268847
0.055224765 0.081788577 0.73400003 7889534
0.056777146 0.082011431 0.73600006 9142156
0.058179051 0.082011431 0.73600006 10465438
0.05966191 0.082122862 0.73700005 10658735
0.061065719 0.082122862 0.73700005 10855079
0.062384766 0.082011431 0.73600006 10920352
0.063786671 0.082011431 0.73600006 10984856
-0.0021514287 0.10972285 0.75300002 11769950
-0.00071714289 0.10972285 0.75300002 11770459
0.00071619049 0.10957715 0.75200003 11639896
0.0021514287 0.10972285 0.75300002 11510366
0.0036000002 0.11016001 0.75600004 11380837
0.0050400002 0.11016001 0.75600004 11247709
0.0064971428 0.11045143 0.75800002 10983765
0.0079409527 0.11045143 0.75800002 10720848
0.0094095245 0.11074286 0.76000005 10589003
0.010857143 0.11074286 0.76000005 10522700
0.012304762 0.11074286 0.76000005 10391117
0.013716191 0.11045143 0.75800002 10326093
0.01516 0.11045143 0.75800002 10326861
0.016603809 0.11045143 0.75800002 10390606
0.01804762 0.11045143 0.75800002 10716494
0.019491429 0.11045143 0.75800002 11112530
0.020935237 0.11045143 0.75800002 10918998
-0.067340001 0.1147 0.77700001 12562613
-0.10640001 0.086133331 0.76000005 8747606
-0.10467619 0.085906669 0.75800002 5055338
-0.10323238 0.085906669 0.75800002 5868926
-0.10178857 0.085906669 0.75800002 6700351
-0.10008001 0.08568 0.75600004 5127425
-0.098509528 0.085566677 0.75500005 3620382
-0.096685715 0.08522667 0.75200003 4147004
-0.095000006 0.085000008 0.75000006 4673597
-0.093571432 0.085000008 0.75000006 4344895
-0.092142865 0.085000008 0.75000006 4016193
-0.090714291 0.085000008 0.75000006 4410179
-0.089285724 0.085000008 0.75000006 4869953
-0.08785715 0.085000008 0.75000006 5001791
-0.086428575 0.085000008 0.75000006 5133888
-0.084773332 0.084773332 0.74800003 4543042
-0.08334858 0.084773332 0.74800003 4017729
-0.081923813 0.084773332 0.74800003 4280384
-0.080499046 0.084773332 0.74800003 4608577
-0.078968577 0.084660001 0.74700004 4476994
-0.077545717 0.084660001 0.74700004 4343876
-0.076122858 0.084660001 0.74700004 4211527
-0.0748 0.084773332 0.74800003 4079424
-0.07337524 0.084773332 0.74800003 3884090
-0.07195048 0.084773332 0.74800003 3688762
-0.070431434 0.084660001 0.74700004 3164987
-0.069008574 0.084660001 0.74700004 2641234
-0.067404769 0.08443334 0.74500006 3689577
-0.065985717 0.08443334 0.74500006 4811357
-0.064393342 0.084206671 0.74300003 4940881
-0.062978096 0.084206671 0.74300003 5070682
-0.061562862 0.084206671 0.74300003 5265764
-0.060147621 0.084206671 0.74300003 5464925
-0.058732383 0.084206671 0.74300003 5464918
-0.057317145 0.084206671 0.74300003 5530699
-0.055901907 0.084206671 0.74300003 5394496
-0.05448667 0.084206671 0.74300003 5335884
-0.053071432 0.084206671 0.74300003 5074008
-0.05165619 0.084206671 0.74300003 4812107
-0.050240953 0.084206671 0.74300003 5136958
-0.048825715 0.084206671 0.74300003 5533257
-0.047410477 0.084206671 0.74300003 5794133
-0.045933336 0.08409334 0.74200004 6055259
-0.044520002 0.08409334 0.74200004 5658721
-0.043106668 0.08409334 0.74200004 5200985
-0.041693337 0.08409334 0.74200004 5528914
-0.040280003 0.08409334 0.74200004 5857358
-0.038761906 0.083866663 0.74000001 5724746
-0.037352383 0.083866663 0.74000001 5593932
-0.03589429 0.083753332 0.73900002 5462351
-0.03448667 0.083753332 0.73900002 5396047
-0.03312381 0.083866663 0.74000001 5462607
-0.031671431 0.083753332 0.73900002 5527886
-0.030263809 0.083753332 0.73900002 5396813
-0.028856192 0.083753332 0.73900002 5331264
-0.027448572 0.083753332 0.73900002 5462580
-0.026040953 0.083753332 0.73900002 5594188
-0.024566669 0.083526671 0.73700005 5921892
-0.023162859 0.083526671 0.73700005 6249563
-0.02175905 0.083526671 0.73700005 5791571
-0.02035524 0.083526671 0.73700005 5401413
-0.018951431 0.083526671 0.73700005 5462584
-0.01754762 0.083526671 0.73700005 5528122
-0.01614381 0.083526671 0.73700005 5463101
-0.014740001 0.083526671 0.73700005 5399352
-0.013336192 0.083526671 0.73700005 5267251
-0.011964763 0.083753332 0.73900002 5200706
-0.010557143 0.083753332 0.73900002 5200721
-0.0091247624 0.083526671 0.73700005 5265224
-0.0077209529 0.083526671 0.73700005 5330496
-0.0063171433 0.083526671 0.73700005 5331516
-0.0049066669 0.08341334 0.73600006 5526840
-0.0035047622 0.08341334 0.73600006 5723453
-0.0021028572 0.08341334 0.73600006 5526850
-0.00070095243 0.08341334 0.73600006 5395777
0.00070095243 0.08341334 0.73600006 5264704
0.0021028572 0.08341334 0.73600006 5199417
0.003509524 0.083526671 0.73700005 5462835
0.0049066669 0.08341334 0.73600006 5726509
0.0063085719 0.08341334 0.73600006 5135655
0.0077104769 0.08341334 0.73600006 4479528
0.0091123814 0.08341334 0.73600006 4412202
0.010514286 0.08341334 0.73600006 4344883
0.01188381 0.083186664 0.73400003 4085309
0.013245715 0.08296001 0.73200005 3891524
0.014640001 0.08296001 0.73200005 4415308
0.016034286 0.08296001 0.73200005 4939074
0.017428573 0.08296001 0.73200005 4676408
0.018822858 0.08296001 0.73200005 4413769
0.020272382 0.083186664 0.73400003 4677723
0.021670477 0.083186664 0.73400003 5007444
0.023068571 0.083186664 0.73400003 5072206
0.024466667 0.083186664 0.73400003 5137244
0.025864763 0.083186664 0.73400003 5268586
0.027262859 0.083186664 0.73400003 5400146
0.02858286 0.08296001 0.73200005 4875322
0.029977145 0.08296001 0.73200005 4416331
0.03137143 0.08296001 0.73200005 4482908
0.032765716 0.08296001 0.73200005 4549438
0.034160003 0.08296001 0.73200005 3753249
0.035505716 0.082846664 0.73100001 2901287
0.036948573 0.08296001 0.73200005 3165485
0.038290478 0.082846664 0.73100001 3426843
0.039682858 0.082846664 0.73100001 2633994
0.041075241 0.082846664 0.73100001 1847098
0.042467616 0.082846664 0.73100001 5069675
0.04386 0.082846664 0.73100001 8357765
0.045252379 0.082846664 0.73100001 9675167
0.046644762 0.082846664 0.73100001 10984853
0.048037142 0.082846664 0.73100001 10655883
0.049497146 0.08296001 0.73200005 10392722
0.051030476 0.083186664 0.73400003 10654617
0.052428573 0.083186664 0.73400003 10915720
0.053973336 0.08341334 0.73600006 9401208
0.055375241 0.08341334 0.73600006 7891080
0.056854289 0.083526671 0.73700005 9471897
0.058258101 0.083526671 0.73700005 11057575
0.05966191 0.083526671 0.73700005 11052470
0.061065719 0.083526671 0.73700005 11054507
0.062384766 0.08341334 0.73600006 11053985
0.063786671 0.08341334 0.73600006 11053470
-0.065859996 0.1147 0.77700001 12627893
-0.064379998 0.1147 0.77700001 12497077
-0.062899999 0.1147 0.77700001 12366261
-0.058159053 0.11410953 0.77300006 12299705
-0.05668667 0.11410953 0.77300006 12430263
-0.055000003 0.11366667 0.77000004 12300213
-0.053533334 0.11366667 0.77000004 12170930
-0.05193143 0.11337143 0.76800001 12039856
-0.050402857 0.11322381 0.76700002 11908788
-0.048941903 0.11322381 0.76700002 12105400
-0.047233336 0.11263333 0.76300001 12302257
-0.035606667 0.11263333 0.76300001 11967900
-0.034063812 0.1123381 0.76100004 11904162
-0.032614287 0.1123381 0.76100004 11901854
-0.031164765 0.1123381 0.76100004 11772315
-0.02971524 0.1123381 0.76100004 11708317
-0.028265715 0.1123381 0.76100004 11774367
-0.026816191 0.1123381 0.76100004 11906211
-0.10640001 0.087580957 0.76000005 8748632
-0.10495239 0.087580957 0.76000005 4752492
-0.10350477 0.087580957 0.76000005 5933952
-0.10178857 0.08735048 0.75800002 7166283
-0.10008001 0.087120004 0.75600004 4654870
-0.098509528 0.087004766 0.75500005 2245672
-0.096685715 0.086659051 0.75200003 3224379
-0.095000006 0.086428575 0.75000006 4281144
-0.093571432 0.086428575 0.75000006 3483958
-0.092142865 0.086428575 0.75000006 2772791
-0.090714291 0.086428575 0.75000006 3362103
-0.089047618 0.086198099 0.74800003 3951673
-0.08785715 0.086428575 0.75000006 3623995
-0.086428575 0.086428575 0.75000006 3362108
-0.084773332 0.086198099 0.74800003 2575933
-0.08334858 0.086198099 0.74800003 1855547
-0.081923813 0.086198099 0.74800003 2902073
-0.080499046 0.086198099 0.74800003 4018744
-0.078968577 0.086082861 0.74700004 3820855
-0.077545717 0.086082861 0.74700004 3690046
-0.076122858 0.086082861 0.74700004 3487301
-0.0748 0.086198099 0.74800003 3291709
-0.07337524 0.086198099 0.74800003 2899765
-0.07195048 0.086198099 0.74800003 2574385
-0.070431434 0.086082861 0.74700004 1323308
-0.069008574 0.086082861 0.74700004 84542
-0.067585714 0.086082861 0.74700004 2115152
-0.066162854 0.086082861 0.74700004 4147018
-0.064566672 0.085852385 0.74500006 4343876
-0.062978096 0.085621901 0.74300003 4608073
-0.061562862 0.085621901 0.74300003 4872271
-0.060147621 0.085621901 0.74300003 5199689
-0.058732383 0.085621901 0.74300003 5264964
-0.057317145 0.085621901 0.74300003 5329726
-0.055901907 0.085621901 0.74300003 5197880
-0.05448667 0.085621901 0.74300003 5132097
-0.053071432 0.085621901 0.74300003 4607563
-0.05165619 0.085621901 0.74300003 4084288
-0.050240953 0.085621901 0.74300003 4675125
-0.048825715 0.085621901 0.74300003 5329461
-0.047410477 0.085621901 0.74300003 5525302
-0.045933336 0.08550667 0.74200004 5723459
-0.044580001 0.085621901 0.74300003 5593936
-0.043106668 0.08550667 0.74200004 5462860
-0.041693337 0.08550667 0.74200004 5791561
-0.040280003 0.08550667 0.74200004 6184776
-0.038866669 0.08550667 0.74200004 5921864
-0.037352383 0.085276194 0.74000001 5658954
-0.03594286 0.085276194 0.74000001 5462092
-0.034533337 0.085276194 0.74000001 5265740
-0.03312381 0.085276194 0.74000001 5331531
-0.031714283 0.085276194 0.74000001 5396808
-0.030304762 0.085276194 0.74000001 5331014
-0.028856192 0.085160956 0.73900002 5265215
-0.027448572 0.085160956 0.73900002 5332281
-0.026040953 0.085160956 0.73900002 5397321
-0.024566669 0.084930487 0.73700005 5397082
-0.023162859 0.084930487 0.73700005 5463381
-0.02175905 0.084930487 0.73700005 5333328
-0.02035524 0.084930487 0.73700005 5200706
-0.018951431 0.084930487 0.73700005 5133619
-0.01754762 0.084930487 0.73700005 5068598
-0.01614381 0.084930487 0.73700005 5069369
-0.014740001 0.084930487 0.73700005 5068597
-0.013336192 0.084930487 0.73700005 4936754
-0.011964763 0.085160956 0.73900002 4871994
-0.010557143 0.085160956 0.73900002 4938307
-0.0091247624 0.084930487 0.73700005 5068862
-0.0077209529 0.084930487 0.73700005 5068346
-0.0063171433 0.084930487 0.73700005 5068344
-0.0049066669 0.084815241 0.73600006 5134135
-0.003509524 0.084930487 0.73700005 5199415
-0.0021028572 0.084815241 0.73600006 5199158
-0.00070095243 0.084815241 0.73600006 5199158
0.00070095243 0.084815241 0.73600006 4871479
0.0021057145 0.084930487 0.73700005 4609328
0.003509524 0.084930487 0.73700005 4215337
0.0049133338 0.084930487 0.73700005 3817246
0.0063085719 0.084815241 0.73600006 3222804
0.0077104769 0.084815241 0.73600006 2699035
0.0091123814 0.084815241 0.73600006 3027490
0.010514286 0.084815241 0.73600006 3419689
0.01188381 0.084584765 0.73400003 2370096
0.013281905 0.084584765 0.73400003 1387566
0.01468 0.084584765 0.73400003 1847084
0.016034286 0.084354289 0.73200005 2371631
0.01747619 0.084584765 0.73400003 2896434
0.018822858 0.084354289 0.73200005 3487799
0.020272382 0.084584765 0.73400003 3358268
0.021670477 0.084584765 0.73400003 3226163
0.023068571 0.084584765 0.73400003 3421993
0.024466667 0.084584765 0.73400003 3684659
0.025864763 0.084584765 0.73400003 3619644
0.027262859 0.084584765 0.73400003 3620917
0.028660953 0.084584765 0.73400003 3622189
0.030059047 0.084584765 0.73400003 3623472
0.03137143 0.084354289 0.73200005 4018226
0.032765716 0.084354289 0.73200005 4409645
0.034160003 0.084354289 0.73200005 3293736
0.03555429 0.084354289 0.73200005 2246706
0.036948573 0.084354289 0.73200005 2640957
0.03834286 0.084354289 0.73200005 3032098
0.039737146 0.084354289 0.73200005 1913094
0.041075241 0.084239051 0.73100001 798010
0.042467616 0.084239051 0.73100001 4478062
0.04386 0.084239051 0.73100001 8161922
0.045252379 0.084239051 0.73100001 9478550
0.046708573 0.084354289 0.73200005 10854287
0.048102859 0.084354289 0.73200005 10589833
0.049497146 0.084354289 0.73200005 10392715
0.051030476 0.084584765 0.73400003 10720142
0.052428573 0.084584765 0.73400003 11113095
0.053973336 0.084815241 0.73600006 9533568
0.055375241 0.084815241 0.73600006 7957132
0.056854289 0.084930487 0.73700005 9801623
0.058258101 0.084930487 0.73700005 11710113
0.05966191 0.084930487 0.73700005 11446442
0.061065719 0.084930487 0.73700005 11250082
0.062384766 0.084815241 0.73600006 11184793
0.063873336 0.084930487 0.73700005 11184539
0.065277152 0.084930487 0.73700005 11249565
-0.023728572 0.11145239 0.75500005 11970465
-0.022290478 0.11145239 0.75500005 11904924
-0.020852383 0.11145239 0.75500005 11839637
-0.019414287 0.11145239 0.75500005 11906959
-0.017976193 0.11145239 0.75500005 11974291
-0.016559999 0.1116 0.75600004 11973528
-0.015100001 0.11145239 0.75500005 11972768
-0.01368 0.1116 0.75600004 12171432
-0.012240001 0.1116 0.75600004 12435884
-0.010828571 0.11189524 0.75800002 12368816
-0.0093847616 0.11189524 0.75800002 12367281
-0.0079409527 0.11189524 0.75800002 12168882
-0.0064971428 0.11189524 0.75800002 12040886
-0.0050666668 0.11219049 0.76000005 11841466
-0.0036000002 0.1116 0.75600004 11710890
-0.0021514287 0.11115715 0.75300002 11573915
-0.00071714289 0.11115715 0.75300002 11445662
0.00071619049 0.11100953 0.75200003 11246497
-0.10495239 0.089028575 0.76000005 6248814
-0.10350477 0.089028575 0.76000005 6973314
-0.10178857 0.088794284 0.75800002 7698007
-0.10008001 0.088560008 0.75600004 5267500
-0.098509528 0.088442862 0.75500005 2902579
-0.096685715 0.088091433 0.75200003 3625018
-0.095000006 0.08785715 0.75000006 4412980
-0.093571432 0.08785715 0.75000006 4281902
-0.092142865 0.08785715 0.75000006 4150829
-0.090714291 0.08785715 0.75000006 4083244
-0.089285724 0.08785715 0.75000006 4018482
-0.08785715 0.08785715 0.75000006 3952952
-0.086428575 0.08785715 0.75000006 3956024
-0.084773332 0.087622859 0.74800003 3887672
-0.08334858 0.087622859 0.74800003 3822389
-0.081923813 0.087622859 0.74800003 4149810
-0.080499046 0.087622859 0.74800003 4477487
-0.078968577 0.087505721 0.74700004 4674348
-0.077545717 0.087505721 0.74700004 4805943
-0.076122858 0.087505721 0.74700004 4280387
-0.0748 0.087622859 0.74800003 3755066
-0.07337524 0.087622859 0.74800003 3492145
-0.07195048 0.087622859 0.74800003 3229479
-0.070431434 0.087505721 0.74700004 2574110
-0.069100954 0.087622859 0.74800003 1919019
-0.067585714 0.087505721 0.74700004 3098424
-0.066162854 0.087505721 0.74700004 4278072
-0.064566672 0.087271437 0.74500006 4408632
-0.062978096 0.087037146 0.74300003 4539193
-0.061562862 0.087037146 0.74300003 4674106
-0.060147621 0.087037146 0.74300003 4804918
-0.058732383 0.087037146 0.74300003 4937011
-0.057317145 0.087037146 0.74300003 5067569
-0.055901907 0.087037146 0.74300003 5198128
-0.05448667 0.087037146 0.74300003 5263415
-0.053071432 0.087037146 0.74300003 5002047
-0.05165619 0.087037146 0.74300003 4740662
-0.050240953 0.087037146 0.74300003 4872493
-0.048825715 0.087037146 0.74300003 4997410
-0.047410477 0.087037146 0.74300003 5132311
-0.045995239 0.087037146 0.74300003 5330219
-0.044580001 0.087037146 0.74300003 5199935
-0.043106668 0.086920008 0.74200004 5134911
-0.041693337 0.086920008 0.74200004 5529152
-0.040280003 0.086920008 0.74200004 5922371
-0.038866669 0.086920008 0.74200004 5790791
-0.037453339 0.086920008 0.74200004 5723976
-0.036040001 0.086920008 0.74200004 5396298
-0.034533337 0.086685717 0.74000001 5134665
-0.03312381 0.086685717 0.74000001 5134664
-0.031714283 0.086685717 0.74000001 5200963
-0.030304762 0.086685717 0.74000001 5134655
-0.028856192 0.086568572 0.73900002 5133886
-0.027448572 0.086568572 0.73900002 5003070
-0.026040953 0.086568572 0.73900002 4872263
-0.024566669 0.086334296 0.73700005 4936528
-0.023162859 0.086334296 0.73700005 4935503
-0.02175905 0.086334296 0.73700005 4675150
-0.02035524 0.086334296 0.73700005 4480318
-0.018951431 0.086334296 0.73700005 4476719
-0.01754762 0.086334296 0.73700005 4475954
-0.01614381 0.086334296 0.73700005 4410422
-0.01478 0.086568572 0.73900002 4344883
-0.013336192 0.086334296 0.73700005 4345137
-0.011964763 0.086568572 0.73900002 4345651
-0.010557143 0.086568572 0.73900002 4410678
-0.0091495244 0.086568572 0.73900002 4475701
-0.0077209529 0.086334296 0.73700005 4475956
-0.0063171433 0.086334296 0.73700005 4476469
-0.0049133338 0.086334296 0.73700005 4541239
-0.003509524 0.086334296 0.73700005 4606257
-0.0021028572 0.08621715 0.73600006 4542251
-0.00070095243 0.08621715 0.73600006 4478252
0.00070190482 0.086334296 0.73700005 4281390
0.0021057145 0.086334296 0.73700005 4150311
0.003509524 0.086334296 0.73700005 3818784
0.0049133338 0.086334296 0.73700005 3549712
0.0063085719 0.08621715 0.73600006 3291137
0.0077104769 0.08621715 0.73600006 3016718
0.0091123814 0.08621715 0.73600006 3224859
0.010514286 0.08621715 0.73600006 3419423
0.011916191 0.08621715 0.73600006 2765092
0.013318096 0.08621715 0.73600006 2110744
0.01468 0.085982859 0.73400003 2503692
0.016121905 0.08621715 0.73600006 2896668
0.01752381 0.08621715 0.73600006 3290669
0.018925715 0.08621715 0.73600006 3684901
0.02032762 0.08621715 0.73600006 3619102
0.021729525 0.08621715 0.73600006 3553297
0.02313143 0.08621715 0.73600006 4014085
0.024533335 0.08621715 0.73600006 4474890
0.02593524 0.08621715 0.73600006 4275471
0.027337145 0.08621715 0.73600006 4141592
0.028660953 0.085982859 0.73400003 4474913
0.030059047 0.085982859 0.73400003 4803605
0.031457145 0.085982859 0.73400003 4738825
0.032765716 0.085748576 0.73200005 4737308
0.034160003 0.085748576 0.73200005 4279343
0.03555429 0.085748576 0.73200005 3886910
0.036948573 0.085748576 0.73200005 3624526
0.03834286 0.085748576 0.73200005 3292968
0.039737146 0.085748576 0.73200005 2438147
0.041075241 0.08563143 0.73100001 1518650
0.042467616 0.08563143 0.73100001 4874353
0.043920003 0.085748576 0.73200005 8228479
0.045314286 0.085748576 0.73200005 9542798
0.046708573 0.085748576 0.73200005 10922122
0.048102859 0.085748576 0.73200005 10588551
0.049632382 0.085982859 0.73400003 10327173
0.051030476 0.085982859 0.73400003 10327428
0.052428573 0.085982859 0.73400003 10262150
0.053973336 0.08621715 0.73600006 9075337
0.055375241 0.08621715 0.73600006 7957647
0.056854289 0.086334296 0.73700005 9931414
0.058258101 0.086334296 0.73700005 11904154
0.059580956 0.08621715 0.73600006 11708063
0.061065719 0.086334296 0.73700005 11572888
0.062384766 0.08621715 0.73600006 11512210
0.063786671 0.08621715 0.73600006 11381144
0.065188579 0.08621715 0.73600006 11643295
0.066590481 0.08621715 0.73600006 11905439
0.0021514287 0.11115715 0.75300002 10992550
0.0036000002 0.1116 0.75600004 10858924
0.0050733336 0.1123381 0.76100004 10725539
0.0065228576 0.1123381 0.76100004 10528155
0.0079619056 0.11219049 0.76000005 10396566
0.0094219055 0.1123381 0.76100004 10263954
0.010871429 0.1123381 0.76100004 10131338
0.012304762 0.11219049 0.76000005 9934722
0.013752381 0.11219049 0.76000005 9803914
0.015200001 0.11219049 0.76000005 10328466
0.016603809 0.11189524 0.75800002 10853270
-0.067340001 0.11618 0.77700001 12233646
-0.065859996 0.11618 0.77700001 12364716
-0.055000003 0.11513334 0.77000004 11774379
-0.053533334 0.11513334 0.77000004 11644841
-0.05193143 0.11483429 0.76800001 11180455
-0.050402857 0.11468477 0.76700002 10721443
-0.048941903 0.11468477 0.76700002 11114399
-0.10178857 0.090238094 0.75800002 8224591
-0.10008001 0.090000004 0.75600004 5851438
-0.098509528 0.089880958 0.75500005 3558708
-0.096685715 0.089523815 0.75200003 4018746
-0.095253341 0.089523815 0.75200003 4544309
-0.093820952 0.089523815 0.75200003 5004335
-0.09238857 0.089523815 0.75200003 5526318
-0.090956196 0.089523815 0.75200003 4804396
-0.089523815 0.089523815 0.75200003 4084271
-0.088091433 0.089523815 0.75200003 4281907
-0.086428575 0.089285724 0.75000006 4544050
-0.085000008 0.089285724 0.75000006 5199410
-0.083571434 0.089285724 0.75000006 5854766
-0.081923813 0.089047618 0.74800003 5396010
-0.080499046 0.089047618 0.74800003 5002537
-0.079074286 0.089047618 0.74800003 5461289
-0.077649526 0.089047618 0.74800003 5985328
-0.076224767 0.089047618 0.74800003 5067575
-0.0748 0.089047618 0.74800003 4213041
-0.07337524 0.089047618 0.74800003 4082988
-0.07195048 0.089047618 0.74800003 3951911
-0.070525713 0.089047618 0.74800003 3886626
-0.069100954 0.089047618 0.74800003 3821866
-0.067676194 0.089047618 0.74800003 4150578
-0.066162854 0.08892858 0.74700004 4475187
-0.064566672 0.088690482 0.74500006 4476468
-0.063147627 0.088690482 0.74500006 4541749
-0.061728574 0.088690482 0.74500006 4476214
-0.060309529 0.088690482 0.74500006 4476210
-0.058890481 0.088690482 0.74500006 4674862
-0.057471432 0.088690482 0.74500006 4870958
-0.056052383 0.088690482 0.74500006 5135406
-0.05448667 0.088452376 0.74300003 5463093
-0.053071432 0.088452376 0.74300003 5463356
-0.051795244 0.088690482 0.74500006 5463090
-0.050240953 0.088452376 0.74300003 5069863
-0.048825715 0.088452376 0.74300003 4675361
-0.047410477 0.088452376 0.74300003 4805148
-0.045995239 0.088452376 0.74300003 5002283
-0.044580001 0.088452376 0.74300003 4871739
-0.043106668 0.088333338 0.74200004 4806972
-0.041693337 0.088333338 0.74200004 5266748
-0.040280003 0.088333338 0.74200004 5725245
-0.038866669 0.088333338 0.74200004 5725246
-0.037453339 0.088333338 0.74200004 5789245
-0.036040001 0.088333338 0.74200004 5396285
-0.034626666 0.088333338 0.74200004 5003069
-0.033213332 0.088333338 0.74200004 5003326
-0.031714283 0.08809524 0.74000001 5002297
-0.030304762 0.08809524 0.74000001 5001269
-0.028856192 0.087976187 0.73900002 5001265
-0.027448572 0.087976187 0.73900002 4673838
-0.026040953 0.087976187 0.73900002 4410932
-0.024633335 0.087976187 0.73900002 4410426
-0.023162859 0.087738104 0.73700005 4476476
-0.02175905 0.087738104 0.73700005 4083774
-0.020410476 0.087976187 0.73900002 3755059
-0.019002859 0.087976187 0.73900002 3819816
-0.017595239 0.087976187 0.73900002 3951656
-0.016187619 0.087976187 0.73900002 3821096
-0.01478 0.087976187 0.73900002 3689767
-0.013372381 0.087976187 0.73900002 3755045
-0.011980952 0.08809524 0.74000001 3886123
-0.010557143 0.087976187 0.73900002 3886128
-0.0091495244 0.087976187 0.73900002 3886126
-0.0077419053 0.087976187 0.73900002 3886124
-0.0063171433 0.087738104 0.73700005 3886126
-0.0049133338 0.087738104 0.73700005 3951665
-0.003509524 0.087738104 0.73700005 4082222
-0.0021057145 0.087738104 0.73700005 3950891
-0.00070190482 0.087738104 0.73700005 3818027
0.00070190482 0.087738104 0.73700005 3750700
0.0021057145 0.087738104 0.73700005 3684906
0.003509524 0.087738104 0.73700005 3488041
0.0049133338 0.087738104 0.73700005 3358244
0.0063085719 0.087619051 0.73600006 3359775
0.0077104769 0.087619051 0.73600006 3423777
0.0091247624 0.087738104 0.73700005 3422243
0.010528572 0.087738104 0.73700005 3422238
0.011932382 0.087738104 0.73700005 3160346
0.013318096 0.087619051 0.73600006 2898966
0.014720001 0.087619051 0.73600006 3162131
0.01614381 0.087738104 0.73700005 3489822
0.01754762 0.087738104 0.73700005 3686442
0.018925715 0.087619051 0.73600006 3883049
0.02032762 0.087619051 0.73600006 3889191
0.021729525 0.087619051 0.73600006 3953953
0.02313143 0.087619051 0.73600006 4608538
0.024533335 0.087619051 0.73600006 5326884
0.025970478 0.087738104 0.73700005 5002286
0.027337145 0.087619051 0.73600006 4673580
0.02873905 0.087619051 0.73600006 5327915
0.030140955 0.087619051 0.73600006 6049060
0.031457145 0.087380953 0.73400003 5525022
0.032765716 0.087142862 0.73200005 5066534
0.034160003 0.087142862 0.73200005 5329197
0.03555429 0.087142862 0.73200005 5591093
0.036948573 0.087142862 0.73200005 4608061
0.03834286 0.087142862 0.73200005 3620645
0.039737146 0.087142862 0.73200005 2963470
0.041131433 0.087142862 0.73200005 2306617
0.042525716 0.087142862 0.73200005 5270884
0.043920003 0.087142862 0.73200005 8291191
0.045314286 0.087142862 0.73200005 9607050
0.046708573 0.087142862 0.73200005 10982024
0.048102859 0.087142862 0.73200005 10653061
0.049497146 0.087142862 0.73200005 10325122
0.051030476 0.087380953 0.73400003 9866368
0.052428573 0.087380953 0.73400003 9471103
0.053973336 0.087619051 0.73600006 8682623
0.055375241 0.087619051 0.73600006 7957130
0.056777146 0.087619051 0.73600006 9995669
0.058258101 0.087738104 0.73700005 12104092
0.059580956 0.087619051 0.73600006 12035492
0.061065719 0.087738104 0.73700005 11970464
0.062384766 0.087619051 0.73600006 11774364
0.063786671 0.087619051 0.73600006 11642783
0.065188579 0.087619051 0.73600006 12035746
0.066590481 0.087619051 0.73600006 12428450
-0.03528 0.11304001 0.75600004 11709345
-0.034019049 0.1136381 0.76000005 11710116
-0.032571428 0.1136381 0.76000005 11774883
-0.031164765 0.11378762 0.76100004 11905187
-0.029676192 0.1136381 0.76000005 12102823
-0.028228572 0.1136381 0.76000005 12038316
-0.026780955 0.1136381 0.76000005 11971499
-0.023728572 0.11289049 0.75500005 12301477
-0.022290478 0.11289049 0.75500005 12303521
-0.020852383 0.11289049 0.75500005 12367775
-0.019414287 0.11289049 0.75500005 12628894
-0.017976193 0.11289049 0.75500005 12957857
-0.016559999 0.11304001 0.75600004 12761764
-0.015100001 0.11289049 0.75500005 12564903
-0.013661906 0.11289049 0.75500005 12761515
-0.012240001 0.11304001 0.75600004 13023404
-0.0094219055 0.11378762 0.76100004 12628398
-0.0079723811 0.11378762 0.76100004 12561583
-0.10008001 0.091440007 0.75600004 5189937
-0.098118097 0.090956196 0.75200003 2372150
-0.096685715 0.090956196 0.75200003 3095355
-0.095253341 0.090956196 0.75200003 3818806
-0.093820952 0.090956196 0.75200003 4016689
-0.09238857 0.090956196 0.75200003 4280367
-0.090956196 0.090956196 0.75200003 3820333
-0.089523815 0.090956196 0.75200003 3360557
-0.088091433 0.090956196 0.75200003 3557934
-0.086659051 0.090956196 0.75200003 3690029
-0.085000008 0.090714291 0.75000006 4083500
-0.083571434 0.090714291 0.75000006 4476967
-0.082142867 0.090714291 0.75000006 4213538
-0.080714293 0.090714291 0.75000006 4015908
-0.079285719 0.090714291 0.75000006 3885607
-0.077857152 0.090714291 0.75000006 3755305
-0.076428577 0.090714291 0.75000006 3557932
-0.075000003 0.090714291 0.75000006 3360553
-0.073571436 0.090714291 0.75000006 3292967
-0.072142862 0.090714291 0.75000006 3225639
-0.070525713 0.090472385 0.74800003 3228711
-0.069100954 0.090472385 0.74800003 3232042
-0.067676194 0.090472385 0.74800003 3427885
-0.066251434 0.090472385 0.74800003 3689262
-0.064740002 0.090351433 0.74700004 3623984
-0.063147627 0.090109527 0.74500006 3558961
-0.061728574 0.090109527 0.74500006 3558450
-0.060309529 0.090109527 0.74500006 3557934
-0.058890481 0.090109527 0.74500006 3690282
-0.057471432 0.090109527 0.74500006 3822635
-0.056052383 0.090109527 0.74500006 3622700
-0.054633338 0.090109527 0.74500006 3423027
-0.053214289 0.090109527 0.74500006 3751994
-0.051795244 0.090109527 0.74500006 4081198
-0.050376195 0.090109527 0.74500006 3820578
-0.048957143 0.090109527 0.74500006 3625505
-0.047410477 0.089867629 0.74300003 3887393
-0.045995239 0.089867629 0.74300003 4149292
-0.044580001 0.089867629 0.74300003 4016696
-0.043164764 0.089867629 0.74300003 3949880
-0.041749526 0.089867629 0.74300003 3752761
-0.040334288 0.089867629 0.74300003 3621175
-0.03891905 0.089867629 0.74300003 3689269
-0.037503812 0.089867629 0.74300003 3757362
-0.036040001 0.089746676 0.74200004 3887920
-0.034626666 0.089746676 0.74200004 4018482
-0.033213332 0.089746676 0.74200004 4082996
-0.031800002 0.089746676 0.74200004 4081967
-0.030304762 0.089504763 0.74000001 4082219
-0.028895238 0.089504763 0.74000001 4082725
-0.027485715 0.089504763 0.74000001 3820575
-0.026076192 0.089504763 0.74000001 3623970
-0.024633335 0.089383811 0.73900002 3624229
-0.023225715 0.089383811 0.73900002 3624490
-0.021818096 0.089383811 0.73900002 3427887
-0.020410476 0.089383811 0.73900002 3231272
-0.019002859 0.089383811 0.73900002 3296545
-0.017595239 0.089383811 0.73900002 3427614
-0.016209524 0.089504763 0.74000001 3295771
-0.0148 0.089504763 0.74000001 3164186
-0.013390477 0.089504763 0.74000001 3360538
-0.011980952 0.089504763 0.74000001 3556898
-0.010571429 0.089504763 0.74000001 3425323
-0.0091619045 0.089504763 0.74000001 3293991
-0.0077419053 0.089383811 0.73900002 3295780
-0.0063342857 0.089383811 0.73900002 3297575
-0.0049133338 0.089141913 0.73700005 3362603
-0.003509524 0.089141913 0.73700005 3362091
-0.0021057145 0.089141913 0.73700005 3360555
-0.00070190482 0.089141913 0.73700005 3359018
0.00070190482 0.089141913 0.73700005 3356970
0.0021057145 0.089141913 0.73700005 3288622
0.003509524 0.089141913 0.73700005 3289906
0.0049133338 0.089141913 0.73700005 3229496
0.0063171433 0.089141913 0.73700005 3295294
0.0077209529 0.089141913 0.73700005 3361076
0.0091247624 0.089141913 0.73700005 3225899
0.010528572 0.089141913 0.73700005 3095070
0.011932382 0.089141913 0.73700005 2963473
0.013336192 0.089141913 0.73700005 2899477
0.014720001 0.08902096 0.73600006 3030042
0.01614381 0.089141913 0.73700005 3095329
0.01754762 0.089141913 0.73700005 3292968
0.018951431 0.089141913 0.73700005 3491628
0.02032762 0.08902096 0.73600006 3425329
0.021729525 0.08902096 0.73600006 3424560
0.023162859 0.089141913 0.73700005 3818544
0.024533335 0.08902096 0.73600006 4212799
0.025970478 0.089141913 0.73700005 4212302
0.027337145 0.08902096 0.73600006 4146241
0.02873905 0.08902096 0.73600006 4604981
0.030140955 0.08902096 0.73600006 5129268
0.031457145 0.088779047 0.73400003 4801588
0.032765716 0.088537149 0.73200005 4474160
0.034160003 0.088537149 0.73200005 4540716
0.03555429 0.088537149 0.73200005 4607276
0.036948573 0.088537149 0.73200005 3884588
0.03834286 0.088537149 0.73200005 3227683
0.039737146 0.088537149 0.73200005 2635290
0.041131433 0.088537149 0.73200005 2111544
0.042525716 0.088537149 0.73200005 4546647
0.044040002 0.088779047 0.73400003 6912367
0.045438096 0.088779047 0.73400003 8291719
0.04683619 0.088779047 0.73400003 9605765
0.048234288 0.088779047 0.73400003 9342596
0.049632382 0.088779047 0.73400003 9145216
0.051030476 0.088779047 0.73400003 8880764
0.052428573 0.088779047 0.73400003 8682105
0.053973336 0.08902096 0.73600006 7762294
0.055375241 0.08902096 0.73600006 6908037
0.056777146 0.08902096 0.73600006 9541012
0.058258101 0.089141913 0.73700005 12172959
0.05966191 0.089141913 0.73700005 11971498
0.061065719 0.089141913 0.73700005 11839400
0.062384766 0.08902096 0.73600006 11576999
0.063786671 0.08902096 0.73600006 11380134
0.065188579 0.08902096 0.73600006 11707558
0.0050733336 0.11378762 0.76100004 10261400
0.00654 0.11408667 0.76300001 10127247
0.0079723811 0.11378762 0.76100004 10068875
0.0094219055 0.11378762 0.76100004 9864071
0.010928571 0.11438572 0.76500005 9733511
0.012385715 0.11438572 0.76500005 9472136
0.013842857 0.11438572 0.76500005 9281168
0.015200001 0.1136381 0.76000005 10328729
-0.05193143 0.11629714 0.76800001 11902878
-0.050402857 0.11614572 0.76700002 11638418
-0.048941903 0.11614572 0.76700002 11638918
-0.03667143 0.11432858 0.75500005 11645606
-0.035233337 0.11432858 0.75500005 11906726
-0.034019049 0.11508572 0.76000005 11906470
-0.032571428 0.11508572 0.76000005 11973032
-0.03112381 0.11508572 0.76000005 12038827
-0.029520001 0.11448001 0.75600004 12170162
-0.097857147 0.092142865 0.75000006 1190952
-0.096428581 0.092142865 0.75000006 2110253
-0.095000006 0.092142865 0.75000006 3093035
-0.093571432 0.092142865 0.75000006 3027497
-0.092142865 0.092142865 0.75000006 3027494
-0.090956196 0.09238857 0.75200003 2831138
-0.089523815 0.09238857 0.75200003 2701350
-0.088091433 0.09238857 0.75200003 2768170
-0.086659051 0.09238857 0.75200003 2897704
-0.08522667 0.09238857 0.75200003 2961702
-0.083794288 0.09238857 0.75200003 3093283
-0.082361907 0.09238857 0.75200003 3028255
-0.080929525 0.09238857 0.75200003 3025952
-0.079285719 0.092142865 0.75000006 2303008
-0.077857152 0.092142865 0.75000006 1582373
-0.076428577 0.092142865 0.75000006 2041385
-0.075000003 0.092142865 0.75000006 2566182
-0.073571436 0.092142865 0.75000006 2501155
-0.072142862 0.092142865 0.75000006 2501411
-0.070714295 0.092142865 0.75000006 2567203
-0.069285721 0.092142865 0.75000006 2632739
-0.067676194 0.091897145 0.74800003 2764068
-0.066251434 0.091897145 0.74800003 2894630
-0.064740002 0.091774292 0.74700004 2763304
-0.063317142 0.091774292 0.74700004 2633513
-0.06189429 0.091774292 0.74700004 2634794
-0.06047143 0.091774292 0.74700004 2634023
-0.058890481 0.09152858 0.74500006 2699045
-0.057471432 0.09152858 0.74500006 2765093
-0.056202862 0.091774292 0.74700004 2044709
-0.054780003 0.091774292 0.74700004 1388582
-0.053214289 0.09152858 0.74500006 2043432
-0.051934287 0.091774292 0.74700004 2699554
-0.050511431 0.091774292 0.74700004 2634780
-0.049088575 0.091774292 0.74700004 2632221
-0.047538098 0.09152858 0.74500006 2957597
-0.045995239 0.091282859 0.74300003 3285800
-0.044580001 0.091282859 0.74300003 3155507
-0.043164764 0.091282859 0.74300003 3089971
-0.041749526 0.091282859 0.74300003 2303540
-0.040334288 0.091282859 0.74300003 1583407
-0.03891905 0.091282859 0.74300003 1649707
-0.037503812 0.091282859 0.74300003 1715756
-0.036040001 0.091159999 0.74200004 2371885
-0.034626666 0.091159999 0.74200004 3092016
-0.033213332 0.091159999 0.74200004 3156787
-0.031800002 0.091159999 0.74200004 3223087
-0.030386668 0.091159999 0.74200004 3223852
-0.028895238 0.090914287 0.74000001 3223079
-0.027485715 0.090914287 0.74000001 3025954
-0.026076192 0.090914287 0.74000001 2827553
-0.024666665 0.090914287 0.74000001 2760224
-0.023257142 0.090914287 0.74000001 2762274
-0.021847619 0.090914287 0.74000001 2699044
-0.020438096 0.090914287 0.74000001 2697762
-0.019028571 0.090914287 0.74000001 2762271
-0.017619047 0.090914287 0.74000001 2893596
-0.016209524 0.090914287 0.74000001 2763032
-0.0148 0.090914287 0.74000001 2697239
-0.013390477 0.090914287 0.74000001 2959125
-0.011980952 0.090914287 0.74000001 3223325
-0.010571429 0.090914287 0.74000001 2963236
-0.0091619045 0.090914287 0.74000001 2766624
-0.0077523813 0.090914287 0.74000001 2766875
-0.0063428571 0.090914287 0.74000001 2766881
-0.0049266671 0.090791427 0.73900002 2701606
-0.0035190478 0.090791427 0.73900002 2701094
-0.0021114287 0.090791427 0.73900002 2831654
-0.00070190482 0.090545721 0.73700005 2962981
0.00070190482 0.090545721 0.73700005 2963492
0.0021057145 0.090545721 0.73700005 2959910
0.003509524 0.090545721 0.73700005 3026215
0.0049133338 0.090545721 0.73700005 3156780
0.0063171433 0.090545721 0.73700005 3222065
0.0077209529 0.090545721 0.73700005 3289640
0.0091247624 0.090545721 0.73700005 3029536
0.010528572 0.090545721 0.73700005 2767131
0.011932382 0.090545721 0.73700005 2832407
0.013336192 0.090545721 0.73700005 2963224
0.014740001 0.090545721 0.73700005 2831897
0.01614381 0.090545721 0.73700005 2767393
0.01754762 0.090545721 0.73700005 2899497
0.018951431 0.090545721 0.73700005 3096108
0.02032762 0.090422861 0.73600006 3030574
0.021729525 0.090422861 0.73600006 2965291
0.023162859 0.090545721 0.73700005 3031080
0.024566669 0.090545721 0.73700005 3162416
0.025970478 0.090545721 0.73700005 3425080
0.027374288 0.090545721 0.73700005 3686705
0.02873905 0.090422861 0.73600006 3948331
0.030140955 0.090422861 0.73600006 4210732
0.031457145 0.090177149 0.73400003 4014637
0.032855239 0.090177149 0.73400003 3883814
0.034253333 0.090177149 0.73400003 3752992
0.03555429 0.089931436 0.73200005 3620641
0.036948573 0.089931436 0.73200005 3226146
0.03834286 0.089931436 0.73200005 2832154
0.039845716 0.090177149 0.73400003 2372626
0.04124381 0.090177149 0.73400003 1977655
0.042641908 0.090177149 0.73400003 3757148
0.044040002 0.090177149 0.73400003 5597035
0.045438096 0.090177149 0.73400003 6912891
0.046963815 0.090422861 0.73600006 8289654
0.048234288 0.090177149 0.73400003 8093809
0.049632382 0.090177149 0.73400003 7959667
0.051030476 0.090177149 0.73400003 7891060
0.052428573 0.090177149 0.73400003 7889767
0.054046672 0.090545721 0.73700005 6905434
0.05545048 0.090545721 0.73700005 5921911
0.056854289 0.090545721 0.73700005 9086612
0.058258101 0.090545721 0.73700005 12299167
0.05966191 0.090545721 0.73700005 11973034
0.061231427 0.090791427 0.73900002 11708843
0.062469527 0.090545721 0.73700005 11380396
0.063873336 0.090545721 0.73700005 11117993
0.065277152 0.090545721 0.73700005 11379879
0.06668096 0.090545721 0.73700005 11707558
-0.028080001 0.11448001 0.75600004 12037562
-0.026780955 0.11508572 0.76000005 11971507
-0.019414287 0.11432858 0.75500005 12237230
-0.017976193 0.11432858 0.75500005 12434351
-0.016559999 0.11448001 0.75600004 12433840
-0.015100001 0.11432858 0.75500005 12432815
-0.013661906 0.11432858 0.75500005 12563886
-0.0094219055 0.11523715 0.76100004 12496555
-0.0079723811 0.11523715 0.76100004 12562092
0.00654 0.11554 0.76300001 11248004
0.0079723811 0.11523715 0.76100004 11182976
0.0094219055 0.11523715 0.76100004 11116669
0.010928571 0.11584286 0.76500005 10985093
0.012385715 0.11584286 0.76500005 10985870
-0.097857147 0.093571432 0.75000006 2631195
-0.096171431 0.093321912 0.74800003 3028512
-0.095000006 0.093571432 0.75000006 3354145
-0.093571432 0.093571432 0.75000006 3091746
-0.09238857 0.093820952 0.75200003 2829341
-0.091077149 0.093945719 0.75300002 2501656
-0.089642853 0.093945719 0.75300002 2173983
-0.088208571 0.093945719 0.75300002 2107943
-0.086774282 0.093945719 0.75300002 2107684
-0.085340001 0.093945719 0.75300002 2041633
-0.083905719 0.093945719 0.75300002 2041375
-0.08247143 0.093945719 0.75300002 2041373
-0.081037149 0.093945719 0.75300002 2107163
-0.079497144 0.093820952 0.75200003 1843994
-0.078064762 0.093820952 0.75200003 1647136
-0.076632388 0.093820952 0.75200003 1712679
-0.075200006 0.093820952 0.75200003 1778211
-0.073571436 0.093571432 0.75000006 1909024
-0.072142862 0.093571432 0.75000006 2039839
-0.070714295 0.093571432 0.75000006 2040607
-0.069285721 0.093571432 0.75000006 2106909
-0.067857146 0.093571432 0.75000006 2106396
-0.066251434 0.093321912 0.74800003 2106142
-0.064826667 0.093321912 0.74800003 2041376
-0.063317142 0.093197145 0.74700004 1975841
-0.06189429 0.093197145 0.74700004 1910050
-0.06047143 0.093197145 0.74700004 1844513
-0.059048574 0.093197145 0.74700004 1976097
-0.057625718 0.093197145 0.74700004 2042144
-0.056202862 0.093197145 0.74700004 1714975
-0.054780003 0.093197145 0.74700004 1453338
-0.053357143 0.093197145 0.74700004 1781014
-0.051934287 0.093197145 0.74700004 2108950
-0.050511431 0.093197145 0.74700004 2240535
-0.049088575 0.093197145 0.74700004 2368024
-0.047538098 0.092947625 0.74500006 2629658
-0.045995239 0.092698105 0.74300003 2891300
-0.044580001 0.092698105 0.74300003 2760238
-0.043280955 0.092947625 0.74500006 2694958
-0.041749526 0.092698105 0.74300003 2172719
-0.040442862 0.092947625 0.74500006 1716008
-0.03891905 0.092698105 0.74300003 1715746
-0.037503812 0.092698105 0.74300003 1715494
-0.036088571 0.092698105 0.74300003 2043435
-0.034673333 0.092698105 0.74300003 2369327
-0.033258095 0.092698105 0.74300003 2370611
-0.031842858 0.092698105 0.74300003 2370608
-0.03042762 0.092698105 0.74300003 2566701
-0.028973334 0.092573337 0.74200004 2763049
-0.027560001 0.092573337 0.74200004 2566693
-0.026146669 0.092573337 0.74200004 2366240
-0.024733335 0.092573337 0.74200004 2301467
-0.023320002 0.092573337 0.74200004 2236954
-0.021847619 0.09232381 0.74000001 2239770
-0.020438096 0.09232381 0.74000001 2238236
-0.019028571 0.09232381 0.74000001 2303774
-0.017619047 0.09232381 0.74000001 2432282
-0.016209524 0.09232381 0.74000001 2236182
-0.01484 0.092573337 0.74200004 2105619
-0.013390477 0.09232381 0.74000001 2236689
-0.011980952 0.09232381 0.74000001 2433303
-0.010600001 0.092573337 0.74200004 2303262
-0.0091619045 0.09232381 0.74000001 2238744
-0.0077523813 0.09232381 0.74000001 2172691
-0.0063428571 0.09232381 0.74000001 2172186
-0.0049333335 0.09232381 0.74000001 2172450
-0.0035190478 0.09219905 0.73900002 2172706
-0.0021114287 0.09219905 0.73900002 2238498
-0.00070380955 0.09219905 0.73900002 2304288
0.00070380955 0.09219905 0.73900002 2238495
0.0021114287 0.09219905 0.73900002 2238238
0.0035190478 0.09219905 0.73900002 2368285
0.0049266671 0.09219905 0.73900002 2498593
0.0063342857 0.09219905 0.73900002 2434341
0.0077419053 0.09219905 0.73900002 2436381
0.0091495244 0.09219905 0.73900002 2239765
0.010557143 0.09219905 0.73900002 2108953
0.011964763 0.09219905 0.73900002 2109470
0.013336192 0.09194953 0.73700005 2110235
0.014740001 0.09194953 0.73700005 2240793
0.01614381 0.09194953 0.73700005 2371362
0.01754762 0.09194953 0.73700005 2371115
0.018951431 0.09194953 0.73700005 2436651
0.02035524 0.09194953 0.73700005 2437676
0.02175905 0.09194953 0.73700005 2438694
0.023162859 0.09194953 0.73700005 2505760
0.024566669 0.09194953 0.73700005 2572833
0.025970478 0.09194953 0.73700005 2701602
0.027374288 0.09194953 0.73700005 2830625
0.028778099 0.09194953 0.73700005 3094561
0.030140955 0.09182477 0.73600006 3358756
0.03154286 0.09182477 0.73600006 3229223
0.032855239 0.091575243 0.73400003 3034141
0.034253333 0.091575243 0.73400003 2966036
0.03565143 0.091575243 0.73400003 2963734
